# .PCD v0.7 - Point Cloud Data file format
VERSION 0.7
FIELDS x y z
SIZE 4 4 4
TYPE F F F
COUNT 1 1 1
WIDTH 1592
HEIGHT 1
VIEWPOINT 0 0 0 1 0 0 0
POINTS 1592
DATA ascii
2.6715062 5.9566221 1.8229065
2.6664712 6.0711474 1.8194709
2.6626556 6.1922226 1.8168674
2.6925449 6.3974266 1.8372623
2.6647563 6.4703755 1.8183006
2.6498795 6.5773745 1.8081495
2.9088151 15.884336 1.9848346
2.8907228 16.464182 1.9724894
2.9170187 17.357405 1.9904324
2.2194824 -7.3831649 1.5149987
2.2240188 -7.2020726 1.5180951
2.237365 -7.0569344 1.5272051
2.2518182 -6.9213762 1.5370706
2.2617056 -6.7777138 1.5438198
2.2554741 -6.5928044 1.5395662
2.2622435 -6.4527392 1.5441869
2.2948012 -6.0967402 1.5664104
2.2849019 -5.9326906 1.5596534
2.2856174 -5.8018184 1.5601417
2.2813649 -5.6633015 1.5572391
2.2222495 -4.7556238 1.5168874
2.6484621 4.4955459 1.8078163
2.6737552 4.6232939 1.8250811
2.6978719 4.7527356 1.841543
2.6594176 4.9582205 1.8152945
2.6670697 5.0687828 1.8205177
2.661072 5.1561322 1.8164237
2.6764567 5.2880745 1.8269252
2.6663163 5.3727245 1.8200034
2.6660564 5.4799614 1.819826
2.6627991 5.5841317 1.8176025
2.6684077 5.7104034 1.821431
2.6755991 5.8442087 1.8263398
2.6731791 5.9610162 1.8246878
2.6657865 6.0702648 1.8196417
2.6642656 6.1966577 1.8186036
2.6862454 6.3831706 1.8336068
2.6633537 6.4676909 1.8179811
2.6503084 6.5791726 1.8090765
2.064096 5.2395072 1.4089333
2.9081333 15.882383 1.9850655
2.8835316 16.425055 1.9682726
2.9147179 17.345648 1.98956
2.2158442 -7.3718886 1.5130489
2.2200098 -7.1898961 1.5158932
2.2368181 -7.0560012 1.5273705
2.2482362 -6.9111419 1.5351672
2.2602148 -6.7740054 1.5433465
2.2542729 -6.5900326 1.5392891
2.2590857 -6.4444547 1.5425754
2.2907767 -6.086731 1.5642152
2.2825518 -5.9272528 1.5585989
2.2899828 -5.8135519 1.5636731
2.2811091 -5.6633015 1.5576137
2.2256603 -4.7634568 1.5197515
2.6520019 4.502059 1.8108711
2.6706133 4.6183791 1.8235797
2.6924238 4.7436705 1.8384726
2.6582198 4.956543 1.8151169
2.6698766 5.0746865 1.8230766
2.6647122 5.163765 1.8195503
2.6701155 5.2761374 1.8232397
2.665592 5.3718677 1.820151
2.6636617 5.4756532 1.8188329
2.668694 5.5971217 1.8222692
2.6632285 5.6999593 1.8185371
2.6756995 5.8450832 1.8270526
2.6665745 5.9469557 1.8208219
2.6685889 6.0773282 1.8221973
2.6635857 6.1957707 1.818781
2.687444 6.386735 1.8350722
2.6637921 6.4694805 1.8189218
2.6496491 6.5782733 1.8092645
2.9067345 15.876525 1.9848107
2.8832083 16.425055 1.9687463
2.9208121 17.383863 1.9944233
2.2172852 -7.3775268 1.5145776
2.2171528 -7.1814656 1.5144873
2.2356744 -7.0531998 1.5271387
2.2497947 -6.9167242 1.5367842
2.2599561 -6.7740054 1.5437251
2.256227 -6.5964999 1.5411779
2.2585046 -6.4435339 1.5427337
2.2929115 -6.093101 1.5662363
2.2850821 -5.9345031 1.5608882
2.2868772 -5.8063312 1.5621142
2.2783144 -5.6570101 1.5562652
2.2254057 -4.7634568 1.5201244
2.6464236 4.4931035 1.8077124
2.6778858 4.6314855 1.8292034
2.7028732 4.7626252 1.8462718
2.6561167 4.9531884 1.8143336
2.6620286 5.0603485 1.8183718
2.6718462 5.1781816 1.825078
2.6732616 5.2829585 1.8260448
2.6567814 5.3547244 1.8147875
2.6683862 5.4859929 1.8227146
2.6638472 5.5875959 1.8196142
2.6665835 5.7077928 1.8214831
2.6721907 5.8380866 1.8253133
2.6682394 5.9513493 1.8226142
2.6624689 6.0640841 1.8186725
2.658324 6.1842394 1.8158413
2.6871367 6.386735 1.8355224
2.6627502 6.4676909 1.8188648
2.65007 6.580071 1.8102031
2.056874 5.2223582 1.4050044
2.9094403 15.893122 1.9873731
2.8797882 16.407448 1.9671185
2.914222 17.346626 1.9906394
2.2193 -7.3850446 1.5164791
2.2171979 -7.1824026 1.5150427
2.2286224 -7.0317278 1.5228492
2.2465205 -6.9074197 1.5350792
2.2603254 -6.7758598 1.5445124
2.257242 -6.6001954 1.5424054
2.2601912 -6.4490571 1.5444206
2.2899764 -6.2294664 1.5647732
2.2885501 -6.082181 1.5637987
2.2827368 -5.9290652 1.5598263
2.2876914 -5.8090386 1.5632118
2.2762532 -5.6525159 1.5553961
2.3220477 -5.073669 1.586688
2.2210946 -4.7547531 1.5177053
2.6446934 4.4906611 1.8071563
2.6756964 4.6282091 1.8283411
2.6918192 4.7436705 1.839358
2.6598711 4.9607363 1.8175274
2.6683896 5.0729995 1.8233483
2.6645513 5.1646128 1.8207256
2.6703784 5.2778425 1.8247074
2.6594651 5.3607244 1.8172501
2.66013 5.4696217 1.8177044
2.6585999 5.5772038 1.8166587
2.6589713 5.6921263 1.8169125
2.6762991 5.8477073 1.828753
2.6699152 5.9557433 1.8243908
2.6691525 6.079977 1.8238696
2.65765 6.1833525 1.8160098
2.6887143 6.3911896 1.8372365
2.6657724 6.4757452 1.8215599
2.6497779 6.580071 1.8106307
2.0594912 5.229579 1.4072794
2.9121575 15.909719 1.9899184
2.8817027 16.420164 1.9691081
2.9193332 17.378965 1.9948215
1.2562388 7.8274951 0.85840571
2.1977415 18.939867 1.5017478
0.88586318 8.1496773 0.60532284
2.5847597 -7.2145753 1.4998003
2.6080241 -7.1035361 1.5132995
2.6291218 -6.9907494 1.5255414
2.6473107 -6.8744297 1.5360955
2.6553378 -6.736443 1.5407532
2.6486933 -6.5671062 1.5368978
2.6545937 -6.4345307 1.5403215
2.668556 -6.3257127 1.5484231
2.7035587 -6.1345801 1.5687333
2.701833 -6.000628 1.5677319
2.7043855 -5.8804307 1.569213
2.250936 -4.7930684 1.3061
3.1238155 4.1546764 1.8125862
3.1316586 4.2392631 1.8171371
3.1110876 4.5219097 1.8052008
3.1593771 4.6752677 1.8332207
3.1808345 4.7926474 1.8456714
3.1464751 5.0070062 1.8257344
3.1522605 5.1093888 1.8290913
3.1468146 5.1958814 1.8259313
3.1540179 5.3057246 1.830111
3.1452887 5.3912311 1.8250459
3.152693 5.5069818 1.8293424
3.1477511 5.6039968 1.8264748
3.1439052 5.705543 1.8242432
3.1584723 5.8438993 1.8326957
3.1580799 5.9582491 1.832468
3.1526349 6.0661731 1.8293085
3.1479928 6.1787424 1.8266151
3.1527002 6.3133249 1.8293464
3.1730742 6.4841495 1.8411684
3.1516871 6.5736413 1.8287587
3.1456978 6.6983442 1.8252834
3.1482136 6.8454924 1.8267432
3.1495428 6.9949675 1.8275144
3.1531703 7.1547818 1.8296193
3.173146 7.3581505 1.8412101
3.1853566 7.5507689 1.8482953
3.1837256 7.7171044 1.8473489
2.0236225 5.0173197 1.1742018
3.4802659 18.930092 2.0194156
3.2258332 19.186884 1.8717818
2.7541916 19.028408 1.5981129
2.5974729 18.960653 1.5071772
2.4566896 19.004929 1.425488
0.96156478 7.9102612 0.55794561
0.90882194 7.9811311 0.52734166
0.84780854 7.9830489 0.49193883
0.78771669 7.9932857 0.45707068
0.72861981 8.0148516 0.42277986
0.4292376 8.1138372 0.24906406
2.5855062 -7.2173467 1.500801
2.6084514 -7.1053767 1.51412
2.6288712 -6.9907494 1.525973
2.646003 -6.8716888 1.5359174
2.6579542 -6.7437229 1.5428547
2.652096 -6.5761695 1.5394542
2.6539683 -6.4336276 1.5405411
2.6622357 -6.3113317 1.5453399
2.6997674 -6.1265607 1.5671258
2.7019749 -6.0015154 1.5684072
2.7098124 -5.8927922 1.5729566
2.2465947 -4.7842803 1.304074
3.1086376 4.5187798 1.8044615
3.1585436 4.67448 1.8334303
3.1747403 4.7839208 1.8428319
3.1344833 4.9883986 1.819464
3.1373959 5.0857797 1.8211547
3.14205 5.188509 1.8238564
3.1497982 5.2991309 1.8283539
3.1406367 5.38377 1.8230358
3.1495287 5.5019784 1.8281974
3.1441538 5.5981259 1.8250775
3.1473231 5.7122898 1.8269172
3.1480889 5.825242 1.8273616
3.1523564 5.9480176 1.8298389
3.1496618 6.0610299 1.8282747
3.1446204 6.1727114 1.8253483
3.1450484 6.2986026 1.8255968
3.1736238 6.4858909 1.8421837
3.148452 6.5675192 1.8275723
3.1437473 6.6948285 1.8248415
3.1544101 6.8596196 1.831031
3.1560316 7.0100465 1.8319721
3.1426613 7.1316156 1.8242111
3.1697562 7.3509903 1.8399389
3.1831577 7.5462747 1.8477179
3.1796987 7.7080784 1.8457102
3.4723821 18.889009 2.0156031
3.2273412 19.197681 1.8733649
2.7529302 19.021503 1.597985
2.5981724 18.967567 1.5081533
2.4558165 18.999985 1.4255204
0.96640825 7.9508624 0.56096804
0.90952551 7.9880714 0.52794951
0.84551442 7.9622054 0.4907932
0.78715211 7.9883175 0.4569158
0.72827917 8.0118685 0.42274201
0.4939765 8.1680546 0.28673705
0.42924953 8.1148357 0.24916518
2.5809598 -7.2053361 1.4987235
2.6075292 -7.1035361 1.5141519
2.6231055 -6.9760761 1.5231969
2.6429393 -6.8643804 1.5347141
2.651248 -6.727344 1.5395389
2.6492872 -6.5698252 1.5384003
2.6559515 -6.4390435 1.5422699
2.6672914 -6.3239145 1.5488549
2.7002974 -6.1283426 1.5680211
2.6961293 -5.9890971 1.5656008
2.7030604 -5.878665 1.5696255
2.2571108 -4.8071294 1.3106695
3.1244938 4.5422578 1.8143454
3.1513238 4.6642356 1.8299252
3.1849692 4.7997875 1.8494625
3.1423202 5.0013433 1.8246968
3.1421211 5.0939207 1.8245813
3.1506815 5.2032537 1.8295522
3.1583173 5.3139653 1.8339862
3.1480772 5.3970346 1.8280398
3.1525722 5.5078158 1.8306501
3.1485667 5.6065125 1.8283241
3.1535311 5.7240977 1.8312068
3.1519156 5.8328743 1.8302687
3.1574807 5.9582491 1.8335004
3.1489189 6.060173 1.8285286
3.1416898 6.1675415 1.8243308
3.14994 6.3089948 1.8291216
3.1733239 6.4858909 1.8427002
3.1481545 6.5675192 1.8280847
3.145926 6.7001014 1.8267907
3.1516762 6.854322 1.8301297
3.1513412 7.0002894 1.8299352
3.1517868 7.1530004 1.830194
3.1764026 7.3670998 1.8444879
3.182478 7.5453763 1.8480159
3.1790259 7.7071753 1.8460113
3.4779871 18.921288 2.0196135
3.2281911 19.204554 1.8745608
2.753669 19.028408 1.5990132
2.5956271 18.950777 1.5072407
2.4563513 19.005917 1.4263653
0.96523374 7.9419503 0.56049633
0.90639192 7.9613018 0.52632779
0.84596145 7.9671683 0.49123678
0.78649044 7.9823565 0.45670286
0.72703528 7.99894 0.42217818
0.43021205 8.1338005 0.24981749
2.5876641 -7.2247381 1.5031821
2.6089711 -7.1081386 1.5155594
2.6311319 -6.9980855 1.5284326
2.6462054 -6.8735161 1.5371889
2.6531479 -6.7328038 1.5412217
2.6512284 -6.575263 1.5401068
2.6530936 -6.4327254 1.5411901
2.6681755 -6.3266115 1.5499513
2.7090702 -6.1488361 1.5737073
2.7022619 -6.0032897 1.5697522
2.7068636 -5.8874946 1.5724254
2.2490575 -4.7904325 1.3064845
3.0970774 1.4471052 1.7991018
3.1285036 4.5485182 1.8173574
3.1579456 4.67448 1.8344603
3.182035 4.7958207 1.8484539
3.1349063 4.9900169 1.8210768
3.1357973 5.0841513 1.8215944
3.1444311 5.1934237 1.8266096
3.1570382 5.3123174 1.8339332
3.1477785 5.3970346 1.8285542
3.1460688 5.4969754 1.827561
3.1477969 5.6056738 1.828565
3.1495147 5.7173505 1.8295628
3.1561987 5.8413553 1.8334455
3.1558259 5.9556913 1.8332289
3.1539643 6.0704584 1.8321475
3.1466579 6.1778812 1.8279033
3.1435883 6.2968707 1.8261201
3.1713195 6.482409 1.8422292
3.1445022 6.5605221 1.826651
3.1377883 6.683404 1.8227508
3.1469116 6.8446093 1.8280507
3.1574304 7.0144815 1.834161
3.1510956 7.1521096 1.8304811
3.1645262 7.3402514 1.8382829
3.1734576 7.5247035 1.8434713
3.1731408 7.6936369 1.8432872
3.4765785 18.915417 2.0195551
3.2260702 19.193756 1.874034
2.7542641 19.034325 1.5999606
2.5963278 18.957689 1.5082147
2.4552236 18.998993 1.4262469
2.3031034 18.95175 1.3378799
0.90574157 7.9563446 0.52614808
0.84472197 7.9562497 0.49070159
0.78621995 7.9803686 0.45671758
0.72714704 8.0009289 0.42240196
0.42927381 8.1168318 0.24936648
2.5837798 -7.2145753 1.5014877
2.605684 -7.099854 1.5142168
2.6246774 -6.9815784 1.5252541
2.6477137 -6.8780837 1.538641
2.6546898 -6.7373533 1.542695
2.6458623 -6.5625749 1.5375651
2.6543319 -6.4363356 1.542487
2.6648912 -6.3194213 1.5486232
2.7029264 -6.1354713 1.5707263
2.6992121 -5.9970803 1.5685678
2.7049839 -5.8839626 1.5719221
2.2500827 -4.7930684 1.3075695
3.1163669 4.531301 1.8109851
3.1501949 4.6634479 1.8306432
3.1822605 4.7966142 1.8492773
3.1412168 5.0005341 1.8254259
3.1450405 5.0996194 1.8276479
3.14463 5.194243 1.8274093
3.1601679 5.3180861 1.8364388
3.147481 5.3970346 1.8290662
3.1467257 5.4986429 1.8286272
3.1437323 5.5989647 1.8268877
3.1520045 5.7224107 1.8316948
3.1526935 5.8354187 1.8320951
3.154624 5.9539862 1.833217
3.1514397 6.0661731 1.8313665
3.1485548 6.1821895 1.8296901
3.148479 6.3072629 1.829646
3.1748514 6.490242 1.8449717
3.1496544 6.5718923 1.8303291
3.1436801 6.6965861 1.8268573
3.1531091 6.858737 1.8323367
3.1459534 6.9896455 1.8281784
3.1519749 7.1547818 1.8316777
3.1727147 7.3599401 1.84373
3.177706 7.5354891 1.8466305
3.1754463 7.699955 1.8453172
2.0210283 5.0127883 1.1744612
3.4717557 18.890965 2.0175087
3.2244456 19.185904 1.8737918
2.753005 19.027422 1.599828
2.5967586 18.962627 1.50903
2.4544802 18.995037 1.426349
2.3028858 18.95175 1.3382545
0.90362459 7.938499 0.52511489
0.84221864 7.9334216 0.48943064
0.78428596 7.9614906 0.45576477
0.72662646 7.9959559 0.4222576
0.42807201 8.0948725 0.24876146
2.5845268 -7.2173467 1.5024869
2.6061122 -7.1016951 1.5150355
2.6275308 -6.9898319 1.5274869
2.645704 -6.8735161 1.5380518
2.6551547 -6.7391734 1.5435457
2.6529183 -6.5807009 1.5422456
2.6559405 -6.4408488 1.5440027
2.6650171 -6.3203197 1.5492792
2.7022772 -6.1345801 1.5709399
2.7017498 -6.0032897 1.5706334
2.7035093 -5.8813138 1.5716562
2.2506938 -4.794826 1.3084168
3.1192999 4.5359969 1.8133717
3.1552179 4.6713276 1.8342522
3.1845899 4.800581 1.8513272
3.1317713 4.9859719 1.8206218
3.1452439 5.1004333 1.8284539
3.1453228 5.1958814 1.8284998
3.1593781 5.3172622 1.8366706
3.1447649 5.3928895 1.8281754
3.1497669 5.5044799 1.8310833
3.1406085 5.5939326 1.8257592
3.1475246 5.7148204 1.8297797
3.1491868 5.8294826 1.8307461
3.1583898 5.9616599 1.8360962
3.1498044 6.0636015 1.8311051
3.1416738 6.1692643 1.8263785
3.1434247 6.2977366 1.8273964
3.1673129 6.4754462 1.8412834
3.1418107 6.556149 1.826458
3.1400814 6.6895556 1.8254527
3.1467214 6.8454924 1.8293128
3.1556344 7.0118208 1.8344944
3.1512833 7.1538916 1.8319649
3.1704843 7.3554654 1.8431271
3.1762669 7.5327926 1.8464887
3.1762614 7.7026629 1.8464855
2.0230286 5.0182261 1.176066
3.4755602 18.913462 2.0204797
3.2252939 19.192774 1.8749901
2.7545986 19.040243 1.6013564
2.5936718 18.941887 1.5078034
2.4532249 18.987127 1.426156
2.3015842 18.942837 1.3380014
0.90353876 7.938499 0.52526259
0.84392977 7.950295 0.49060956
0.78489661 7.9684467 0.45629126
0.72529227 7.9820328 0.4216409
0.42945635 8.1218233 0.24965987
2.5832856 -7.2145753 1.5023377
2.6082258 -7.1081386 1.5168419
2.6241755 -6.9815784 1.5261176
2.6458011 -6.8744297 1.5386943
2.6534653 -6.7355332 1.5431514
2.6490097 -6.5716376 1.5405602
2.6541963 -6.4372382 1.5435766
2.6586974 -6.3059387 1.5461942
2.7031944 -6.1372528 1.5720719
2.6966999 -5.9926453 1.568295
2.70122 -5.8768992 1.5709237
2.2504773 -4.794826 1.3087894
3.0961926 1.4471052 1.8006243
3.1184616 4.5352144 1.813575
3.1628973 4.6831474 1.8394171
3.1732323 4.7839208 1.8454275
3.1365509 4.9940615 1.8240951
3.1424313 5.0963631 1.8275149
3.1544406 5.2114453 1.834499
3.1556466 5.3114934 1.8352003
3.1502628 5.4028378 1.8320694
3.142307 5.491972 1.8274426
3.1506641 5.6123834 1.8323027
3.1458282 5.7122898 1.8294903
3.154839 5.840507 1.8347307
3.158989 5.9633651 1.8371443
3.1503918 6.0653157 1.8321444
3.1440039 6.1744342 1.8284295
3.144419 6.3003349 1.8286709
3.1742444 6.490242 1.8460162
3.1461184 6.5657701 1.8296591
3.1418417 6.6939497 1.8271719
3.1606226 6.8763957 1.8380942
3.145751 6.9905324 1.8294455
3.1447005 7.1396346 1.8288347
3.1782792 7.374259 1.8483626
3.178993 7.5399833 1.8487777
3.1785607 7.708981 1.8485264
2.0231991 5.0191326 1.1766133
3.4786403 18.932047 2.0230408
3.2246535 19.190811 1.8753321
2.7509093 19.016573 1.599821
2.5939631 18.945837 1.5085473
2.4541388 18.996029 1.427231
2.3029268 18.955711 1.3392919
0.90480584 7.9503965 0.52619964
0.84216291 7.9344139 0.48976895
0.78257036 7.9455943 0.45511225
0.72449958 7.9740763 0.42134055
0.42725131 8.0808992 0.24847262
2.5876741 -7.2275095 1.5054489
2.602577 -7.0934105 1.514119
2.6339245 -7.0081735 1.5323561
2.6473105 -6.8789973 1.540144
2.65465 -6.7391734 1.5444138
2.6480303 -6.5698252 1.5405627
2.6554356 -6.4408488 1.544871
2.6694362 -6.3320041 1.5530161
2.7037253 -6.1390347 1.5729648
2.6984425 -5.9970803 1.5698913
2.7029953 -5.8813138 1.57254
2.2515035 -4.7974629 1.3098725
3.0983059 1.448229 1.8025227
3.1154785 4.531301 1.8125132
3.153554 4.6697516 1.8346646
3.1739864 4.7855072 1.8465519
3.1418452 5.0029612 1.8278527
3.1310933 5.0784526 1.8215976
3.1472037 5.1999769 1.8309702
3.1489856 5.3007798 1.8320069
3.1461 5.3962054 1.8303282
3.1482141 5.5028124 1.831558
3.1489561 5.6098676 1.8319896
3.1478548 5.716507 1.8313491
3.1476722 5.8277864 1.8312427
3.1487567 5.9446073 1.8318738
3.1505411 6.0661731 1.8329118
3.139322 6.1658182 1.8263848
3.1406665 6.2934065 1.8271669
3.1722438 6.4867611 1.845538
3.1449847 6.5640211 1.8296794
3.1427836 6.6965861 1.8283987
3.1497753 6.8534393 1.8324662
3.150245 7.0011764 1.8327396
3.14676 7.1449814 1.8307121
3.1702673 7.3563604 1.8443881
3.1794522 7.5417805 1.8497317
3.1782622 7.708981 1.8490394
2.017895 5.0064445 1.1739646
3.4716647 18.895857 2.0197341
3.2231963 19.183939 1.875181
2.751935 19.02545 1.6010121
2.5935843 18.944849 1.5088873
2.4527586 18.987127 1.4269581
2.3001842 18.934916 1.3381939
0.90212595 7.9275928 0.524836
0.83945036 7.9096003 0.48837277
0.78259474 7.946588 0.45529547
0.7251544 7.9820328 0.42187804
0.42847764 8.1048546 0.24927837
2.5844507 -7.2191949 1.5041405
2.6050305 -7.1007748 1.5161179
2.626436 -6.9889145 1.5285758
2.643894 -6.8707752 1.5387363
2.6522462 -6.7337136 1.5435973
2.6444905 -6.5616684 1.5390834
2.6510894 -6.4309201 1.542924
2.6638775 -6.3194213 1.5503665
2.7030752 -6.138144 1.5731795
2.7009788 -6.0032897 1.5719594
2.7043607 -5.8848457 1.5739276
2.2533507 -4.801857 1.3114417
3.1205618 4.5391273 1.8161552
3.1473999 4.6610837 1.8317748
3.1721056 4.7831268 1.8461534
3.1308775 4.9859719 1.8221588
3.1423385 5.0971775 1.8288291
3.1399632 5.188509 1.8274467
3.1511331 5.3049002 1.8339474
3.1453168 5.3953762 1.8305625
3.1426663 5.4936395 1.8290199
3.143007 5.5998034 1.8292181
3.140589 5.7038565 1.8278109
3.147372 5.8277864 1.8317585
3.1561334 5.9591017 1.8368577
3.1497958 6.0653157 1.8331691
3.143409 6.1744342 1.8294522
3.1420953 6.2968707 1.8286875
3.1638551 6.4702239 1.8413517
3.1467803 6.5683942 1.8314141
3.1387725 6.6886768 1.8267536
3.1551554 6.8658004 1.8362886
3.1459539 6.9923062 1.8309332
3.1382201 7.1262703 1.8264321
3.1664944 7.3483062 1.8428878
3.1761184 7.5345907 1.8484888
3.1746101 7.7008572 1.8476111
2.0220857 5.0173197 1.1768463
3.4769044 18.926178 2.023545
3.2230539 19.184921 1.8758051
2.7515297 19.024462 1.6013799
2.5948241 18.955713 1.5101779
2.45278 18.989105 1.4275087
2.30213 18.95274 1.3398309
0.90158862 7.9236274 0.52472115
0.83747447 7.8917346 0.48740694
0.78154165 7.9366517 0.45485428
0.7249046 7.9800439 0.42189172
0.42833126 8.1028585 0.24928716
2.5818908 -7.2127275 1.5032134
2.6068099 -7.1062975 1.5177215
2.6275656 -6.9925833 1.5298058
2.6411831 -6.8643804 1.5377342
2.6519949 -6.7337136 1.544029
2.6493533 -6.574357 1.5424908
2.6538148 -6.4381409 1.5450884
2.6640038 -6.3203197 1.5510207
2.6985033 -6.1283426 1.5711068
2.7031169 -6.0086117 1.5737929
2.707756 -5.8927922 1.5764937
2.2502506 -4.7957048 1.3101276
3.0953133 1.4471052 1.8021351
3.1256456 4.5469532 1.8197951
3.1508262 4.6665998 1.8344555
3.1839051 4.8013744 1.8537146
3.1392159 4.9997249 1.8276958
3.1355166 5.0865936 1.8255421
3.1461098 5.1991582 1.8317095
3.1542609 5.3106689 1.8364552
3.1459854 5.3970346 1.8316371
3.1442769 5.4969754 1.8306423
3.1521227 5.6165767 1.8352104
3.1495781 5.7207241 1.8337289
3.1566911 5.8455954 1.8378701
3.151319 5.9505758 1.8347424
3.1450462 6.0567441 1.8310905
3.1444271 6.1770196 1.83073
3.1482792 6.3098607 1.8329726
3.1699386 6.4832792 1.8455831
3.1406162 6.556149 1.8285111
3.1368258 6.6851616 1.8263042
3.1544509 6.8649173 1.8365659
3.1516414 7.0056114 1.8349301
3.1532238 7.1610188 1.8358514
3.1727493 7.3635197 1.8472196
3.1750593 7.5327926 1.8485644
3.171705 7.6945391 1.8466115
3.4724422 18.903681 2.0217049
3.2201102 19.169216 1.8747936
2.7514119 19.02545 1.6019109
2.5964711 18.969542 1.5117022
2.4545915 19.004929 1.4290978
2.3005891 18.941847 1.3394355
0.90105212 7.9196615 0.52460527
0.83865887 7.9036446 0.48827904
0.77745658 7.8959155 0.4526462
0.72429389 7.9740763 0.42169413
0.42982069 8.1318045 0.25024769
2.5852795 -7.2228899 1.5057592
2.6055455 -7.1035361 1.517563
2.6273122 -6.9925833 1.5302407
2.6430376 -6.8698621 1.5393996
2.6510227 -6.7318935 1.5440505
2.6487324 -6.5734501 1.5427166
2.6505828 -6.4309201 1.5437943
2.6645048 -6.3221173 1.5519029
2.7002046 -6.1327977 1.5726959
2.6964722 -5.9944191 1.570522
2.7046552 -5.8866115 1.5752879
2.2434366 -4.7816439 1.3066578
3.1097448 4.5242577 1.8112266
3.1569066 4.6760559 1.8386953
3.1846502 4.8029609 1.8548542
3.1384056 4.9989157 1.8279197
3.1407342 5.0955486 1.829276
3.1413457 5.1917853 1.8296322
3.1407418 5.2884173 1.8292805
3.1398838 5.3870859 1.8287807
3.1430199 5.4953074 1.8306072
3.1409943 5.5972872 1.8294276
3.1483462 5.7190375 1.8337095
3.1568444 5.8464437 1.8386592
3.1487577 5.9463124 1.8339492
3.1456332 6.0584583 1.8321294
3.1450012 6.1787424 1.8317612
3.1471117 6.3081288 1.8329904
3.1713352 6.4867611 1.8470991
3.1453407 6.5666447 1.831959
3.1381726 6.6886768 1.8277841
3.1533353 6.8631511 1.8366153
3.1489437 7.0002894 1.8340576
3.1474276 7.1485448 1.8331745
3.1662748 7.3492007 1.8441517
3.1792989 7.5435781 1.8517375
3.1784678 7.711688 1.8512533
3.4733651 18.910528 2.0230122
3.2222729 19.183939 1.876767
2.7510037 19.024462 1.6022831
2.5958154 18.966578 1.5118958
2.45295 18.994049 1.4286859
2.3007281 18.944818 1.3400264
0.90017569 7.9127212 0.52429456
0.83689314 7.8877645 0.4874365
0.77835983 7.9058509 0.45334461
0.72314012 7.962142 0.42118269
0.66257524 7.9631696 0.38590753
0.42919895 8.1208248 0.24998082
2.5850365 -7.2228899 1.5061761
2.6012495 -7.0924897 1.5156226
2.6243091 -6.9852467 1.5290583
2.6431406 -6.8707752 1.5400305
2.6522069 -6.7355332 1.5453131
2.649214 -6.575263 1.5435692
2.6544256 -6.4408488 1.5466058
2.6593304 -6.3104329 1.5494635
2.7019124 -6.1372528 1.5742741
2.6974161 -5.9970803 1.5716542
2.7027786 -5.88308 1.5747788
2.247761 -4.7913113 1.3096619
3.1245129 4.5461707 1.820503
3.1613975 4.6831474 1.8419938
3.1754093 4.789474 1.8501579
3.1411579 5.0037699 1.8302013
3.1419444 5.0979915 1.8306595
3.1519537 5.2098069 1.8364913
3.1472986 5.2999554 1.8337791
3.1395888 5.3870859 1.8292869
3.1513085 5.5103173 1.8361155
3.1491699 5.6123834 1.8348694
3.1489787 5.7207241 1.834758
3.1515114 5.8371148 1.8362336
3.157491 5.9633651 1.8397177
3.1457827 6.0593152 1.8328959
3.1438289 6.1770196 1.8317574
3.146816 6.3081288 1.8334979
3.1748664 6.4945941 1.8498416
3.1475587 6.5718923 1.8339306
3.1382902 6.6895556 1.8285303
3.1538506 6.8649173 1.8375965
3.148648 7.0002894 1.8345653
3.1451707 7.1440897 1.8325392
3.1706038 7.3599401 1.8473579
3.1808944 7.5480719 1.8533536
3.1737053 7.7008572 1.849165
3.4724998 18.907593 2.0232582
3.2227948 19.188848 1.877767
2.748749 19.010654 1.6015635
2.5955715 18.966578 1.5123143
2.4551461 19.012842 1.4304951
2.3023157 18.959673 1.3414483
0.89535439 7.8710809 0.52167982
0.83681452 7.8877645 0.48757145
0.77466774 7.8690891 0.45136151
0.72126591 7.9422517 0.42024687
0.6642521 7.9840727 0.38702765
0.42942235 8.1258154 0.2502037
2.4825194 -7.1791844 1.5001513
2.50755 -7.0732217 1.5152769
2.5265067 -6.9544139 1.5267322
2.5435412 -6.8348489 1.5370259
2.5450602 -6.6789308 1.5379438
2.5444479 -6.5235124 1.5375737
2.5532858 -6.3976269 1.5429145
2.5906792 -6.2061729 1.5655107
2.5911067 -6.0721297 1.565769
2.5784645 -5.9127192 1.5581295
2.5814266 -5.7939548 1.5599195
2.5787961 -5.6667581 1.5583299
2.4184623 -5.2043548 1.4614424
2.2078648 -4.6538515 1.3341814
2.9860921 4.4656568 1.8044531
3.0057695 4.5768552 1.8163439
3.0446124 4.7207341 1.8398161
3.0136788 5.0287743 1.8211234
3.0133326 5.1227684 1.820914
3.0223382 5.2353721 1.8263561
3.0213842 5.3335338 1.8257797
3.0173271 5.4287148 1.8233279
3.0208127 5.5402379 1.8254343
3.0151489 5.6378236 1.8220116
3.0167511 5.7519102 1.8229798
3.0226059 5.8775959 1.8265178
3.023334 5.9969387 1.8269579
3.0216506 6.115005 1.8259406
3.0078943 6.2117286 1.8176278
3.0447872 6.4179592 1.8399217
3.0216489 6.502368 1.8259395
3.0123458 6.6194582 1.8203179
3.0283947 6.797164 1.8300159
3.0412362 6.9739079 1.8377758
3.0333326 7.1084633 1.8329998
3.0311515 7.2613573 1.8316818
3.037967 7.4418154 1.8358003
3.3281143 18.294294 2.0111322
2.7311089 19.068846 1.6503704
2.5675638 18.940899 1.5515423
2.2769864 18.929964 1.3759506
2.4874101 -7.1940193 1.503647
2.5092738 -7.0787654 1.5168636
2.528939 -6.9617786 1.5287514
2.5432966 -6.8348489 1.5374306
2.5399425 -6.666141 1.535403
2.5452676 -6.5262423 1.5386221
2.5505087 -6.3912826 1.5417904
2.5855532 -6.194489 1.5629748
2.584748 -6.0578108 1.5624881
2.573554 -5.9020271 1.5557214
2.5811784 -5.7939548 1.5603303
2.5749321 -5.6588111 1.5565544
2.3998539 -5.1648083 1.4507191
2.2151208 -4.6695948 1.3390473
2.9847512 4.4640808 1.8042914
2.9971449 4.5641613 1.8117832
3.0309291 4.6999702 1.8322059
3.0119164 5.0263171 1.8207127
3.0130427 5.1227684 1.8213936
3.0263543 5.2428336 1.8294404
3.0291235 5.3477097 1.8311145
3.0179691 5.4303918 1.8243716
3.0117857 5.5242138 1.8206338
3.0148587 5.6378236 1.8224914
3.0164609 5.7519102 1.8234599
3.0302489 5.8930249 1.8317947
3.0182657 5.9874606 1.8245509
3.0157974 6.1037469 1.8230587
3.0113976 6.2195616 1.820399
3.0440795 6.4170847 1.8401555
3.0270748 6.5146713 1.8298761
3.0124578 6.6203413 1.82104
3.0300794 6.801599 1.8316922
3.0378354 6.9667797 1.8363807
3.0315137 7.1048837 1.8325593
3.0349865 7.271244 1.8346586
3.0454118 7.4607697 1.8409607
3.3374026 18.347115 2.0174701
2.7315526 19.073778 1.651232
2.5697265 18.958677 1.5534075
2.2766483 18.928974 1.376241
2.4833207 -7.1828938 1.5017223
2.5123034 -7.0880036 1.5192488
2.5230081 -6.9461298 1.5257223
2.5440722 -6.8375998 1.5384601
2.5445671 -6.6789308 1.5387595
2.5467935 -6.5307922 1.5401058
2.5498981 -6.3903766 1.5419832
2.5875514 -6.1998811 1.5647531
2.5906045 -6.0721297 1.5665994
2.5787418 -5.9145012 1.5594257
2.5840874 -5.8010507 1.5626582
2.56986 -5.6482158 1.5540546
2.4032948 -5.1727176 1.4533287
2.2161489 -4.6722183 1.3401573
2.9897285 4.471961 1.807959
2.9963315 4.5633683 1.811952
3.0388727 4.7127481 1.8376776
3.0116224 5.0263171 1.8211988
3.0132334 5.1235924 1.822173
3.0222309 5.2362013 1.8276139
3.0132425 5.3201914 1.8221784
3.0195389 5.4337463 1.825986
3.0156298 5.5318046 1.8236221
3.0136578 5.6361275 1.8224295
3.0233202 5.7655525 1.8282727
3.0295124 5.892168 1.8320173
3.019274 5.990046 1.8258258
3.0176425 6.108077 1.8248392
3.0136318 6.2247839 1.8224139
3.0408785 6.4109621 1.8388907
3.0271878 6.5155501 1.8306116
3.0089502 6.613277 1.8195827
3.0199056 6.7794237 1.8262078
3.036762 6.9649978 1.8364012
3.0277815 7.0968294 1.8309705
3.0294387 7.2586608 1.8319727
3.0406938 7.4499388 1.8387789
3.3265803 18.289404 2.0116611
2.7315686 19.075748 1.6518435
2.5688064 18.953739 1.5534176
2.2755926 18.922043 1.3761042
0.86069769 7.6400738 0.52048409
2.4833984 -7.1838207 1.5023178
2.5051818 -7.0686026 1.5154954
2.5271075 -6.958096 1.5287594
2.5468941 -6.8458538 1.540729
2.5446663 -6.6798444 1.5393814
2.54548 -6.5280619 1.5398737
2.5496488 -6.3903766 1.5423955
2.5906742 -6.2079706 1.5672135
2.5876789 -6.065865 1.5654017
2.576159 -5.9091554 1.5584327
2.5838346 -5.8010507 1.563076
2.5712156 -5.6517477 1.5554422
2.392853 -5.1507473 1.4475428
2.2043176 -4.6477294 1.3334893
3.0085397 4.5824089 1.8199989
3.0339413 4.7055607 1.8353655
3.0132911 5.0295935 1.8228734
3.0080924 5.1153507 1.8197284
3.0190647 5.2312269 1.8263661
3.0228648 5.3377032 1.8286649
3.0164475 5.4287148 1.8247827
3.0194724 5.5393949 1.8266126
3.0174439 5.6437602 1.8253855
3.0163188 5.7527633 1.8247049
3.0248094 5.8835959 1.8298411
3.0237556 5.9995236 1.8292036
3.0143526 6.102015 1.8235155
3.0120735 6.2221727 1.8221366
3.0405812 6.4109621 1.8393823
3.022809 6.5067616 1.8286312
3.011066 6.6185751 1.8215274
3.0223758 6.7856326 1.828369
3.0325806 6.9560881 1.8345425
3.0332122 7.1102533 1.8349245
3.0347683 7.2721419 1.8358659
3.0381866 7.4445233 1.8379337
3.3310583 18.315815 2.0151048
2.73229 19.082653 1.6528833
2.5682874 18.951763 1.5536709
2.2771561 18.936895 1.3775526
0.85849154 7.6212363 0.51933956
2.485399 -7.190311 1.504077
2.511812 -7.0880036 1.5200613
2.5295346 -6.9654603 1.5307864
2.5452802 -6.842185 1.540315
2.5405898 -6.6697955 1.5374765
2.5452311 -6.5280619 1.5402853
2.5501223 -6.392189 1.5432453
2.584795 -6.194489 1.5642281
2.5858986 -6.0622854 1.564896
2.5743532 -5.905591 1.557909
2.5831869 -5.8001637 1.5632548
2.575784 -5.662343 1.5587748
2.3913939 -5.1481104 1.4471885
2.2090793 -4.6582246 1.3368579
3.0077243 4.5816154 1.8201702
3.0387931 4.7135468 1.8389719
3.010052 5.0246782 1.8215787
3.0097365 5.1186476 1.8213879
3.0202045 5.2337141 1.8277228
3.026819 5.3452077 1.8317255
3.0119588 5.4211664 1.8227327
3.0154996 5.5326476 1.8248755
3.0225887 5.6539364 1.8291656
3.0236228 5.7672577 1.8297913
3.0280387 5.8904538 1.8324636
3.0256307 6.0038319 1.8310065
3.0161967 6.1063452 1.8252972
3.0054591 6.2091174 1.8187994
3.034477 6.3987179 1.8363599
3.0253708 6.5129132 1.8308492
3.0067549 6.6097455 1.8195835
3.0248454 6.791842 1.8305312
3.0412173 6.9765811 1.840439
3.0294795 7.1021991 1.8333356
3.0292208 7.2595592 1.8331791
3.0378892 7.4445233 1.8384249
3.3280637 18.30114 2.0140285
2.7327287 19.087585 1.6537524
2.5666978 18.941887 1.5532763
2.2745521 18.917091 1.3764797
2.4813108 -7.1791844 1.5021497
2.5132039 -7.0926232 1.5214573
2.5296218 -6.9663806 1.5313966
2.5453727 -6.8431025 1.5409319
2.5424294 -6.6752768 1.5391501
2.5432091 -6.5235124 1.5396221
2.5513196 -6.3958144 1.5445322
2.5920429 -6.2124648 1.5691855
2.5867913 -6.06497 1.5660062
2.5795393 -5.9180655 1.5616158
2.5805647 -5.7948418 1.5622367
2.573926 -5.6588111 1.5582176
2.3829968 -5.1305342 1.442632
2.2088637 -4.6582246 1.3372142
3.0011816 4.5720954 1.816872
3.0467339 4.726325 1.8444487
3.006814 5.0197635 1.8202817
3.0128343 5.1244164 1.8239264
3.0151262 5.2254238 1.8253139
3.0208576 5.3352013 1.8287836
3.0167899 5.4303918 1.826321
3.0211806 5.543612 1.8289791
3.0150406 5.640368 1.8252622
3.0219867 5.7646999 1.8294673
3.0220153 5.8793106 1.8294846
3.0175202 5.9883223 1.8267632
3.0103419 6.0950866 1.8224175
3.0110631 6.221302 1.8228542
3.0395722 6.4100876 1.8401133
3.0246675 6.5120344 1.8310901
3.0064616 6.6097455 1.8200685
3.021785 6.7856326 1.8293451
3.0312111 6.9543056 1.8350515
3.0337644 7.1129379 1.8365971
3.0300505 7.2622557 1.8343488
3.0357511 7.4400105 1.8378
3.3181348 18.248322 2.0087509
2.7313323 19.079695 1.6535093
2.5679193 18.952751 1.5545813
2.2755208 18.926994 1.3775674
0.86100364 7.6450315 0.52123916
2.4794643 -7.1745486 1.5015832
2.5067368 -7.0750694 1.5180997
2.5266991 -6.9590168 1.530189
2.544781 -6.842185 1.5411396
2.5432224 -6.6780171 1.5401958
2.5397658 -6.5153227 1.5381024
2.5510683 -6.3958144 1.5449473
2.5891628 -6.2061729 1.5680176
2.5842464 -6.0596004 1.5650402
2.5730717 -5.9038091 1.5582727
2.5799155 -5.7939548 1.5624174
2.5692549 -5.6490984 1.5559613
2.3917413 -5.1498685 1.4484576
2.2098901 -4.6608486 1.3383269
2.9864509 4.4688087 1.8086183
2.9956784 4.5641613 1.8142067
3.043345 4.7215333 1.843074
3.0200305 4.9498219 1.8289545
3.0119147 5.0287743 1.8240395
3.015929 5.1301851 1.8264705
3.0167425 5.2287402 1.8269632
3.0181997 5.3310323 1.8278457
3.0146294 5.4270372 1.8256835
3.0204232 5.5427685 1.8291924
3.0183699 5.6471519 1.8279488
3.0167727 5.755321 1.8269815
3.0305288 5.8964539 1.8353122
3.020262 5.9943538 1.8290946
3.0181713 6.1115413 1.8278285
3.0099242 6.2195616 1.822834
3.043005 6.4179592 1.842868
3.023145 6.5093985 1.8308407
3.0109842 6.6203413 1.823476
3.026227 6.796277 1.832707
3.0367374 6.9676709 1.8390723
3.0380454 7.1236773 1.8398645
3.030127 7.263155 1.8350689
3.0387664 7.4481335 1.840301
3.3258107 18.292337 2.0141373
2.7310634 19.079695 1.6539536
2.5690043 18.962627 1.5558094
2.2754154 18.927984 1.3780097
0.85957903 7.6331339 0.52056789
2.4846694 -7.190311 1.5052818
2.5091109 -7.0824604 1.520089
2.5284579 -6.9645395 1.5318102
2.542146 -6.8357658 1.5401026
2.5426269 -6.677104 1.5403941
2.5483854 -6.5380716 1.5438827
2.5497353 -6.393095 1.5447006
2.5919099 -6.2133632 1.5702511
2.5897191 -6.0730243 1.5689238
2.5778689 -5.9153924 1.5617446
2.5836134 -5.802825 1.5652248
2.5718157 -5.6552796 1.5580775
2.3915083 -5.1498685 1.4488423
2.2084308 -4.6582246 1.3379288
2.996949 4.5665417 1.815635
3.0420191 4.7199354 1.8429397
3.0184891 5.0402422 1.8286847
3.0098219 5.1202955 1.8234338
3.0188396 5.2328849 1.828897
3.0103524 5.3176894 1.8237551
3.0120065 5.4228439 1.8247572
3.0146146 5.5326476 1.8263373
3.0117307 5.6352797 1.8245901
3.0205009 5.7629948 1.8299034
3.0187802 5.8741674 1.828861
3.0217042 5.9978004 1.8306323
3.0187323 6.1132731 1.828832
3.0054195 6.2108583 1.8207667
3.0427084 6.4179592 1.8433573
3.020402 6.5041251 1.8298434
3.0110922 6.6212239 1.8242034
3.0148742 6.7714405 1.8264946
3.0321705 6.95787 1.8369732
3.0263007 7.0968294 1.8334171
3.0313313 7.2667499 1.8364648
3.0373657 7.4454255 1.8401206
3.321219 18.268862 2.0120866
2.7307973 19.079695 1.6543928
2.5686204 18.961641 1.5561417
2.2755511 18.930956 1.3785921
2.1477895 19.074408 1.3011906
2.4841061 -7.189384 1.5054888
2.5075564 -7.0787654 1.5197008
2.5282106 -6.9645395 1.5322182
2.5442841 -6.842185 1.5419596
2.542726 -6.6780171 1.5410153
2.5410433 -6.5198727 1.5399954
2.5491245 -6.392189 1.544893
2.5834086 -6.1935897 1.5656708
2.5841236 -6.0604954 1.5661043
2.5694633 -5.8966813 1.5572194
2.5802016 -5.7957287 1.5637273
2.569155 -5.649982 1.5570326
2.4071891 -5.1841421 1.4588734
2.2094586 -4.6608486 1.3390391
2.9961352 4.5657487 1.8158032
3.0324574 4.7055607 1.8378162
3.0083835 5.0238595 1.8232262
3.0167935 5.132658 1.8283232
3.0171099 5.2303982 1.8285148
3.0213864 5.3377032 1.8311067
3.0182326 5.4345851 1.8291954
3.0202932 5.543612 1.8304442
3.0141551 5.640368 1.8267242
3.0157371 5.7544684 1.827683
3.0228894 5.8827391 1.8320175
3.0188041 5.9926305 1.8295417
3.0184371 6.1132731 1.8293192
3.0080733 6.2169509 1.8230383
3.0424109 6.4179592 1.8438485
3.0217388 6.5076408 1.8313203
3.0111992 6.622107 1.8249328
3.0256362 6.796277 1.8336822
3.0303209 6.9543056 1.8365214
3.0328732 7.1129379 1.8380682
3.0329094 7.271244 1.8380902
3.0403824 7.4535494 1.8426191
3.3335183 18.33831 2.0202737
2.728554 19.065886 1.653636
2.5693057 18.968554 1.5571239
2.2734239 18.91511 1.3778051
2.147356 19.072424 1.3014019
2.4806595 -7.1801119 1.5039475
2.5063295 -7.0759935 1.5195104
2.529634 -6.9691424 1.5336391
2.5460813 -6.8476877 1.5436106
2.5456076 -6.6862392 1.5433235
2.5425677 -6.5244226 1.5414805
2.5470681 -6.3876572 1.544209
2.5906529 -6.2115655 1.5706332
2.5865417 -6.0667601 1.5681405
2.5746472 -5.9091554 1.5609293
2.5842924 -5.8054862 1.566777
2.5757282 -5.6649919 1.5615847
2.3881843 -5.1437168 1.4478827
2.2088277 -4.6599741 1.3391442
3.0005269 4.5728884 1.8191271
3.0445116 4.7247276 1.8457936
3.0090704 5.0254979 1.8243067
3.009233 5.1202955 1.8244053
3.0096421 5.2179623 1.8246533
3.0196748 5.3352013 1.8307358
3.0086226 5.4178119 1.8240353
3.0112679 5.5275874 1.825639
3.0174854 5.6471519 1.8294084
3.0167825 5.7570262 1.8289822
3.026998 5.8913107 1.8351756
3.014169 5.9840145 1.8273978
3.011301 6.0994172 1.825659
3.0115688 6.2247839 1.8258214
3.0379677 6.4092131 1.8418262
3.0242994 6.5137925 1.8335396
3.0072918 6.6141605 1.8232284
3.0170484 6.7776494 1.8291434
3.0397298 6.9765811 1.8428947
3.0249455 7.0950394 1.8339312
3.0266149 7.2568631 1.8349434
3.0345626 7.4400105 1.8397619
3.3235917 18.285492 2.0149913
2.7287104 19.068846 1.6543331
2.5683854 18.963617 1.557133
2.2728446 18.91214 1.3779557
2.1487086 19.086304 1.3026959
2.4848974 -7.1930923 1.5070735
2.508698 -7.083384 1.5215083
2.5280464 -6.9654603 1.5332431
2.5461693 -6.8486047 1.5442344
2.5453548 -6.6862392 1.5437404
2.5444427 -6.5298824 1.5431873
2.5471764 -6.3885636 1.5448452
2.5881469 -6.2061729 1.5696937
2.5839956 -6.0613904 1.5671759
2.569345 -5.897572 1.5582904
2.5816669 -5.8001637 1.5657636
2.5710571 -5.6552796 1.5593288
2.388355 -5.1445956 1.4485213
2.2069502 -4.6564751 1.3385004
2.9847529 4.4680209 1.8102324
3.0080366 4.5847888 1.8243538
3.0462675 4.727922 1.8475406
3.0004339 5.0115719 1.8197429
3.013293 5.1277132 1.8275418
3.0189059 5.2345433 1.830946
3.0222065 5.3402047 1.8329477
3.0204318 5.4396172 1.8318714
3.0137255 5.5326476 1.8278041
3.0194511 5.6513925 1.8312767
3.0222907 5.7681103 1.8329989
3.0209725 5.8801675 1.8321993
3.0134354 5.9831524 1.8276281
3.0161319 6.1098089 1.8292636
3.0133748 6.2291355 1.8275914
3.0426404 6.4197087 1.8453408
3.0231829 6.5120344 1.83354
3.0057888 6.6115112 1.8229905
3.0242498 6.7945027 1.8341872
3.0370986 6.9712348 1.8419799
3.0311308 7.1102533 1.8383603
3.0356848 7.2793326 1.8411223
3.0394146 7.4526467 1.8433845
3.3360612 18.355919 2.0232985
2.7298508 19.078709 1.655636
2.5669265 18.954727 1.5568236
2.2733328 18.918081 1.3787611
2.146821 19.071434 1.3020325
2.4811356 -7.1828938 1.5053297
2.5071483 -7.079689 1.5211118
2.5261331 -6.9608574 1.5326301
2.5421746 -6.8385167 1.5423627
2.5385032 -6.6688819 1.5401353
2.5417166 -6.5235124 1.5420847
2.5472932 -6.3894701 1.5454682
2.5886478 -6.2079706 1.5705584
2.5814586 -6.0560212 1.5661967
2.573756 -5.9082642 1.5615233
2.581419 -5.8001637 1.5661726
2.5708101 -5.6552796 1.5597361
2.3930211 -5.1551414 1.4518698
2.2034223 -4.6494784 1.3368384
2.9926543 4.5617814 1.8156732
3.0372279 4.714345 1.8427165
3.0114243 5.0304122 1.8270612
3.0067081 5.1169996 1.8241998
3.0167034 5.2312269 1.830264
3.0110629 5.3210254 1.826842
3.0071037 5.4161344 1.8244398
3.0115983 5.5292745 1.8271668
3.019161 5.6513925 1.831755
3.0139594 5.7527633 1.8285992
3.0237646 5.886168 1.8345481
3.0192208 5.9952159 1.8317914
3.0124223 6.102881 1.8276666
3.0067704 6.2160807 1.8242376
3.0315711 6.3969684 1.8392844
3.0200369 6.5058827 1.8322865
2.9986765 6.5965014 1.819327
3.0152743 6.7749887 1.8293971
3.031373 6.9587607 1.8391643
3.0277874 7.1030936 1.8369889
3.0305212 7.2676492 1.8386474
3.0361781 7.4454255 1.8420795
3.3240087 18.291361 2.0167093
2.7280362 19.06786 1.6551268
2.5650752 18.942875 1.5562567
2.2729952 18.917091 1.3790489
2.1461682 19.067469 1.3021017
3.0804079 -7.6975336 1.5021755
3.0847569 -7.5308394 1.5042962
3.0931871 -7.380064 1.5084072
3.1161299 -7.2685199 1.5195955
3.1182542 -7.1130562 1.5206314
3.1298115 -6.9840679 1.5262674
3.1432588 -6.8634233 1.532825
2.9858193 -3.9589179 1.4560488
3.2747698 -4.2658777 1.596957
3.6842153 1.4918917 1.796625
3.7064803 3.7130055 1.8074826
3.7322185 3.804924 1.8200339
3.7299941 4.007484 1.8189492
3.7356021 4.0841985 1.821684
3.7294831 4.1493025 1.8187001
3.7471948 4.2424135 1.8273373
3.7251699 4.4444366 1.8165966
3.7278163 4.5261455 1.8178873
3.7402871 4.6216173 1.8239686
3.7235489 4.6824708 1.8158063
3.7839768 4.8429713 1.8452742
3.7750335 4.9175453 1.8409129
3.7444067 4.9647341 1.8259777
3.7441998 5.053369 1.8258767
3.7553289 5.159472 1.831304
3.7432535 5.2356486 1.8254153
3.7590415 5.3529572 1.8331143
3.7738171 5.4717579 1.8403198
3.7799795 5.5808649 1.8433248
3.7729518 5.6728177 1.8398978
3.8006916 5.8200679 1.8534251
3.8070917 5.9381585 1.8565463
3.7815073 6.0084801 1.84407
3.7703812 6.1034784 1.8386441
3.7615685 6.2045174 1.8343467
3.7450056 6.2950039 1.8262696
3.8017159 6.5131154 1.8539248
3.7799442 6.6012249 1.8433077
3.7689853 6.7106047 1.8379635
3.7791369 6.8611951 1.8429139
3.8071148 7.0493436 1.8565575
3.826036 7.2264838 1.8657844
3.8307784 7.3820004 1.8680971
3.8298259 7.5311875 1.8676327
3.8059053 7.6389284 1.8559678
3.7908759 7.7678642 1.8486385
3.8023822 7.9562402 1.8542497
3.8274035 8.1800137 1.8664514
3.8136959 8.3273468 1.8597668
3.8240335 8.5331993 1.864808
3.8385181 8.7560511 1.8718715
3.8474705 8.9744053 1.8762372
3.8563232 9.2008371 1.8805542
3.8555737 9.4126387 1.8801887
3.0892985 -7.7203727 1.5071435
3.089726 -7.5435791 1.507352
3.1001542 -7.397284 1.5124395
3.1127832 -7.2612987 1.5186007
3.1176085 -7.1121573 1.5209548
3.129158 -6.9831729 1.5265894
3.1470857 -6.872333 1.5353355
2.9798012 -3.9512572 1.4537243
3.2762566 -4.2681589 1.5983528
3.6872964 1.4932599 1.7988825
3.6995022 3.7063143 1.8048372
3.7180021 3.7907367 1.8138626
3.7320952 4.0806937 1.820738
3.7368085 4.1577878 1.8230374
3.7224176 4.4415107 1.8160167
3.7281225 4.5268826 1.8187999
3.7363775 4.6171584 1.8228271
3.7226529 4.6817222 1.8161315
3.7771859 4.8346696 1.8427359
3.7723942 4.9145036 1.8403982
3.7573922 4.9823532 1.8330793
3.7496147 5.0610857 1.829285
3.7459767 5.1470375 1.8275101
3.7519031 5.2481699 1.8304014
3.7626116 5.3584733 1.8356256
3.7773428 5.4773111 1.8428124
3.7677753 5.5632949 1.8381448
3.770509 5.6696024 1.8394785
3.800385 5.8200679 1.8540537
3.8083501 5.9406009 1.8579396
3.778625 6.0043845 1.8434379
3.7695682 6.1026545 1.8390195
3.7587519 6.2003717 1.8337427
3.7541282 6.3108478 1.8314869
3.8028779 6.5156317 1.8552699
3.7825367 6.6062851 1.8453465
3.7782063 6.7275653 1.8432337
3.7774234 6.8586369 1.8428518
3.7966239 7.0304856 1.8522189
3.8257272 7.2264838 1.8664173
3.8232789 7.3681445 1.8652228
3.8264194 7.525095 1.8667549
3.8042908 7.6363044 1.8559593
3.7901416 7.7669859 1.8490565
3.8024976 7.9571238 1.8550845
3.827925 8.1817875 1.8674893
3.8137968 8.3282375 1.8605968
3.8309436 8.5493078 1.8689622
3.8460884 8.7740278 1.8763506
3.8382614 8.9536457 1.8725321
3.8525934 9.1926794 1.8795242
3.8511629 9.4026299 1.8788263
3.0766282 -7.689312 1.5015748
3.0861294 -7.5353894 1.5062119
3.0953534 -7.3864083 1.5107137
3.1125388 -7.2612987 1.5191013
3.1228793 -7.1247406 1.524148
3.1301155 -6.985858 1.5276797
3.1407187 -6.8589683 1.5328547
2.9720581 -3.9412987 1.4505383
3.2754161 -4.2673984 1.5985949
3.6903849 1.4946278 1.8011239
3.6945372 3.7016304 1.8031505
3.7269866 3.8001947 1.8189877
3.7326329 4.0109572 1.8217435
3.7311618 4.0799928 1.8210255
3.7428694 4.1648588 1.8267394
3.7629757 4.2609582 1.8365525
3.7221255 4.4415107 1.8166152
3.7193303 4.5165606 1.815251
3.7414966 4.623847 1.8260694
3.7235518 4.6832199 1.8173113
3.7780683 4.8361788 1.8439186
3.7744329 4.9175453 1.8421443
3.7443886 4.9654999 1.8274809
3.7493205 5.0610857 1.829888
3.7541659 5.1586947 1.8322527
3.7476926 5.242692 1.8290935
3.751251 5.3427129 1.8308301
3.7770464 5.4773111 1.8434198
3.7788372 5.5800662 1.8442938
3.7707474 5.6704059 1.8403456
3.795861 5.8135958 1.8526025
3.8023107 5.9316454 1.8557503
3.7798746 6.0068421 1.8448001
3.7672362 6.0993576 1.8386319
3.7644875 6.2103205 1.8372904
3.7528417 6.3091798 1.8316065
3.8030689 6.51647 1.8561203
3.7827229 6.6071286 1.8461903
3.7683854 6.7106047 1.8391927
3.7761877 6.8569317 1.8430007
3.8000288 7.0373435 1.8546367
3.8267958 7.2290688 1.8677005
3.8288205 7.3794022 1.8686886
3.8301017 7.532928 1.869314
3.8061709 7.6406775 1.8576343
3.7915592 7.7705007 1.8505028
3.8030431 7.9588895 1.8561077
3.8321888 8.1915445 1.8703325
3.8175774 8.3371487 1.8632013
3.8274348 8.5421486 1.8680123
3.8308165 8.7398729 1.8696629
3.8441501 8.9680872 1.8761704
3.8488729 9.1845226 1.8784753
3.85496 9.4126387 1.8814462
3.0844219 -7.7094102 1.5060072
3.0866268 -7.537209 1.5070838
3.0992825 -7.396378 1.513263
3.1103547 -7.2567859 1.5186691
3.1190834 -7.1166515 1.522931
3.1262553 -6.9778032 1.5264329
3.144546 -6.8678784 1.5353636
2.9729741 -3.9428306 1.4515914
3.2722347 -4.2635961 1.5977091
3.3529971 -3.3597047 1.6371423
3.6731999 1.4877875 1.7934853
3.6975796 3.7049761 1.8053889
3.7227118 3.7961411 1.8176601
3.7359893 4.0855999 1.8241431
3.7374856 4.1592021 1.8248736
3.7279551 4.4488244 1.8202202
3.7329946 4.5335183 1.8226808
3.7309737 4.6112137 1.8216941
3.7190845 4.6779771 1.815889
3.7783544 4.8369336 1.8448282
3.777631 4.9221077 1.8444752
3.7463987 4.968564 1.8292254
3.7570212 5.0718884 1.8344121
3.7510366 5.154809 1.83149
3.7406788 5.2333007 1.8264327
3.7548223 5.3482289 1.8333384
3.7756488 5.4757247 1.8435073
3.7785335 5.5800662 1.8449157
3.7773933 5.6808562 1.844359
3.792387 5.8087416 1.8516799
3.8056581 5.9373446 1.8581597
3.7790554 6.0060225 1.8451706
3.7679515 6.101006 1.839749
3.7661953 6.2136364 1.8388914
3.7560122 6.3150172 1.8339194
3.7959118 6.5047288 1.8534009
3.7838674 6.6096587 1.8475201
3.7599874 6.6961875 1.8358603
3.7796407 6.8637533 1.8454564
3.8029635 7.0433435 1.8568439
3.8205588 7.2178674 1.8654351
3.8249178 7.3724737 1.8675635
3.8213868 7.5163913 1.8658394
3.8102217 7.6494241 1.8603878
3.7908256 7.7696214 1.8509175
3.7980974 7.9491773 1.8544681
3.8285618 8.1844492 1.8693427
3.8193102 8.3416033 1.8648255
3.819509 8.5251446 1.8649225
3.8332663 8.7461643 1.8716396
3.8488708 8.9798212 1.8792589
3.8504627 9.1890545 1.880036
3.8527873 9.4080896 1.881171
3.0838106 -7.7084966 1.5063319
3.0934603 -7.5544987 1.5110456
3.0994148 -7.397284 1.513954
3.1101067 -7.2567859 1.5191767
3.1208038 -7.1211452 1.5244019
3.1256053 -6.9769082 1.5267472
3.1442955 -6.8678784 1.5358766
2.9744701 -3.9451289 1.4529231
3.2719738 -4.2635961 1.5982431
3.6830397 1.4918917 1.7990341
3.7019589 3.7096601 1.8082755
3.7270527 3.8008704 1.8205329
3.7286417 4.0778899 1.8213091
3.7276576 4.1485953 1.8208283
3.7459989 4.2424135 1.8297875
3.729496 4.4510183 1.8217264
3.7266266 4.5261455 1.8203248
3.7282715 4.6082411 1.8211282
3.7181931 4.6772285 1.8162053
3.7804115 4.8399525 1.8465968
3.7703273 4.9129829 1.8416711
3.7460999 4.968564 1.8298368
3.74472 5.0556841 1.8291627
3.7490413 5.1524777 1.8312736
3.7470927 5.242692 1.8303218
3.7578418 5.3529572 1.8355722
3.7693307 5.4669976 1.8411843
3.7674174 5.5640936 1.8402495
3.7754891 5.6784449 1.8441923
3.7973664 5.8168321 1.8548787
3.8017023 5.9316454 1.8569965
3.7787542 6.0060225 1.8457873
3.7600172 6.088644 1.8366349
3.7553434 6.1962266 1.8343519
3.7502573 6.3058443 1.8318676
3.7965879 6.5064058 1.8544984
3.780669 6.604598 1.8467226
3.7701628 6.7148447 1.8415906
3.7713583 6.8492584 1.8421746
3.8058999 7.0493436 1.8590469
3.825727 7.2282066 1.8687319
3.8205698 7.3646798 1.8662126
3.8228521 7.5198731 1.8673275
3.8068686 7.643302 1.8595201
3.7918098 7.7722583 1.8521644
3.8037002 7.9615383 1.8579725
3.8257668 8.1791267 1.8687513
3.818598 8.3407116 1.8652495
3.8260205 8.5403585 1.8688751
3.8368995 8.7551527 1.8741891
3.8481772 8.9789181 1.8796979
3.8505359 9.1899614 1.8808501
3.8513625 9.4053602 1.8812537
3.0853889 -7.7130642 1.5077341
3.0846415 -7.5335698 1.5073689
3.0934694 -7.3836899 1.5116827
3.1121762 -7.2622008 1.5208243
3.1162198 -7.1112585 1.5228002
3.1237497 -6.9733286 1.5264798
3.142818 -6.8652053 1.535798
2.9834702 -3.9573855 1.4579296
3.2763779 -4.2696795 1.6010646
3.6911852 1.495312 1.803768
3.6936479 3.7016304 1.8049715
3.714828 3.7887096 1.8153216
3.7302637 4.0799928 1.8228644
3.7451453 4.1683946 1.8301367
3.7633295 4.2623844 1.8390228
3.7279699 4.4495559 1.8217436
3.7269328 4.5268826 1.8212367
3.7279708 4.6082411 1.821744
3.7196791 4.6794753 1.8176922
3.7860007 4.8474994 1.8501015
3.7822769 4.9289513 1.8482817
3.74753 4.9708619 1.8313019
3.7495611 5.0626287 1.8322945
3.7470427 5.150146 1.8310639
3.7434347 5.2379961 1.8293006
3.7630699 5.360837 1.8388959
3.780513 5.4836583 1.8474197
3.7681947 5.5656905 1.8414001
3.7735808 5.676033 1.8440322
3.7991722 5.8200679 1.8565378
3.8050478 5.9373446 1.8594092
3.7758729 6.0019269 1.8451523
3.7698917 6.1051269 1.8422295
3.7620742 6.2078333 1.8384093
3.7568972 6.3175192 1.8358794
3.8026426 6.5173087 1.8582338
3.7736056 6.5927906 1.8440443
3.7698586 6.7148447 1.8422133
3.7701149 6.8475533 1.8423386
3.8037419 7.0459151 1.8587711
3.8254185 7.2282066 1.8693637
3.8296957 7.3828659 1.8714538
3.8260829 7.5268359 1.8696883
3.8074329 7.645051 1.8605746
3.7962193 7.7819252 1.855095
3.8055024 7.9659534 1.8596313
3.8358302 8.2013025 1.8744516
3.8150265 8.3335838 1.8642855
3.8229058 8.5340939 1.8681357
3.8334389 8.747962 1.8732829
3.8362625 8.9518414 1.8746629
3.8460481 9.1799908 1.8794447
3.8510516 9.4053602 1.8818898
3.0847771 -7.7121511 1.5080597
3.0866301 -7.5390291 1.5089656
3.0989172 -7.397284 1.5149724
3.1157954 -7.2712269 1.5232236
3.1250288 -7.1319308 1.5277376
3.1363275 -7.0019665 1.5332612
3.1539872 -6.8901534 1.5418944
2.9820774 -3.9558537 1.4578527
3.2726157 -4.2651172 1.5998887
3.3501887 -3.3576975 1.6378119
3.6917343 1.495654 1.8047838
3.6886797 3.6969466 1.8032905
3.7211552 3.7954657 1.8191668
3.7327287 4.0123467 1.8248248
3.7267618 4.076488 1.8219078
3.7391288 4.1620307 1.8279537
3.7184815 4.4385853 1.8178598
3.7242079 4.5239339 1.8206592
3.7270715 4.6074977 1.8220592
3.7211676 4.6817222 1.8191729
3.7674272 4.8241038 1.8417879
3.7726393 4.9167848 1.844336
3.7541606 4.9800549 1.8353022
3.7464046 5.0587707 1.8315105
3.7388282 5.139266 1.8278067
3.7442541 5.2395616 1.8304592
3.7517076 5.345077 1.8341031
3.774195 5.4749312 1.8450965
3.7705972 5.569684 1.8433377
3.7716763 5.6736217 1.8438653
3.7935884 5.8119779 1.8545773
3.7953532 5.9226904 1.8554401
3.7771173 6.0043845 1.8465252
3.7665374 6.1001821 1.8413529
3.7547405 6.1962266 1.8355858
3.751143 6.3083463 1.833827
3.798914 6.5114379 1.857181
3.7815104 6.6071286 1.8486727
